-1.73774 0.26436 -0.0306813 
-1.73972 0.26466 -0.0307162 
-1.74177 0.28991 -0.0308209 
-1.7536 0.29188 -0.0310304 
-1.74345 0.315268 -0.0309257 
-1.74149 0.314912 -0.0308908 
-1.75268 0.341957 -0.03117 
-1.75268 0.341957 -0.03117 
-1.75171 0.366909 -0.0312398 
-1.7478 0.36609 -0.03117 
-1.74642 0.391331 -0.0312398 
-1.75032 0.392206 -0.0313096 
-1.73275 0.11752 0.465357 
-1.75396 0.118958 0.471051 
-1.72709 0.141386 0.464321 
-1.73094 0.141701 0.465357 
-1.73075 0.165738 0.465874 
-1.7519 0.167763 0.471568 
-1.74747 0.191996 0.471051 
-1.73403 0.190519 0.467427 
-1.74849 0.216546 0.472086 
-1.73699 0.215122 0.46898 
-1.73764 0.239881 0.470015 
-1.75295 0.241995 0.474156 
-1.73226 0.263526 0.469498 
-1.74754 0.26585 0.473639 
-1.74175 0.289907 0.473121 
-1.76081 0.293079 0.478298 
-1.75654 0.317635 0.478298 
-1.74514 0.315572 0.475192 
-1.75389 0.342193 0.478815 
-1.74631 0.340713 0.476745 
-1.76224 0.369115 0.482439 
-1.76603 0.369907 0.483474 
-1.75126 0.392417 0.480886 
-1.75503 0.393261 0.481921 
-1.72061 -0.170223 -0.463286 
-1.70523 -0.168702 -0.459145 
-1.70742 -0.144876 -0.459145 
-1.71127 -0.145203 -0.46018 
-1.71308 -0.121894 -0.46018 
-1.72079 -0.122442 -0.462251 
-1.71462 -0.0979636 -0.46018 
-1.71076 -0.0977432 -0.459145 
-1.71196 -0.0738477 -0.459145 
-1.71582 -0.0740142 -0.46018 
-1.7244 -0.0505766 -0.462251 
-1.71668 -0.0503501 -0.46018 
-1.71335 -0.0263172 -0.459145 
-1.71721 -0.0263766 -0.46018 
-1.72128 -0.00240336 -0.461216 
-1.72901 -0.00241415 -0.463286 
-1.72114 0.0216297 -0.461216 
-1.71728 0.0215811 -0.46018 
-1.72069 0.0450579 -0.461216 
-1.72841 0.0452601 -0.463286 
-1.72763 0.0690866 -0.463286 
-1.71991 0.0687779 -0.461216 
-1.71878 0.0927848 -0.461216 
-1.72649 0.0932013 -0.463286 
-1.7273 -0.170886 0.0302974 
-1.73128 -0.171279 0.0303672 
-1.72554 -0.146414 0.0302276 
-1.71557 -0.145568 0.030053 
-1.72537 -0.122768 0.0301927 
-1.72537 -0.122768 0.0301927 
-1.73491 -0.0991227 0.0303323 
-1.72492 -0.0985523 0.0301578 
-1.72413 -0.0743729 0.0301229 
-1.72413 -0.0743729 0.0301229 
-1.73299 -0.0508285 0.0302625 
-1.73899 -0.0510044 0.0303672 
-1.72153 -0.026443 0.030053 
-1.72553 -0.0265044 0.0301229 
-1.73173 -0.00241796 0.0302276 
-1.73373 -0.00242075 0.0302625 
-1.7416 0.0218867 0.0304021 
-1.7296 0.0217359 0.0301927 
-1.72914 0.0452792 0.0301927 
-1.72914 0.0452792 0.0301927 
-1.73635 0.0694354 0.0303323 
-1.74634 0.0698349 0.0305068 
-1.73721 0.0937796 0.0303672 
-1.73122 0.0934562 0.0302625 
-1.72207 -0.170368 -0.399513 
-1.71432 -0.169601 -0.397713 
-1.7204 -0.145978 -0.398613 
-1.70875 -0.14499 -0.395914 
-1.71057 -0.121715 -0.395914 
-1.71834 -0.122268 -0.397713 
-1.71599 -0.0980419 -0.396814 
-1.72377 -0.0984866 -0.398613 
-1.7094 -0.0737375 -0.395014 
-1.70551 -0.0735695 -0.394114 
-1.71415 -0.050276 -0.395914 
-1.71805 -0.0503903 -0.396814 
-1.71859 -0.0263977 -0.396814 
-1.71469 -0.0263378 -0.395914 
-1.71489 -0.00239444 -0.395914 
-1.71879 -0.00239988 -0.396814 
-1.72645 0.0216963 -0.398613 
-1.73424 0.0217943 -0.400413 
-1.7221 0.0450947 -0.397713 
-1.71041 0.0447886 -0.395014 
-1.71742 0.0686783 -0.396814 
-1.72131 0.0688341 -0.397713 
-1.73186 0.0934909 -0.400413 
-1.72407 0.0930707 -0.398613 
-1.71725 -0.169891 0.0904365 
-1.72122 -0.170284 0.0906459 
-1.72343 -0.146235 0.0906459 
-1.73139 -0.146911 0.0910646 
-1.72128 -0.122477 0.0904365 
-1.7153 -0.122052 0.0901225 
-1.72282 -0.0984323 0.0904365 
-1.7308 -0.098888 0.0908552 
-1.73201 -0.0747126 0.0908552 
-1.72004 -0.0741962 0.0902272 
-1.7209 -0.0504738 0.0902272 
-1.72888 -0.050708 0.0906459 
-1.73541 -0.0266561 0.0909599 
-1.73941 -0.0267175 0.0911692 
-1.72763 -0.00241222 0.0905412 
-1.72563 -0.00240944 0.0904365 
-1.72949 0.0217346 0.0906459 
-1.73748 0.0218349 0.0910646 
-1.74101 0.04559 0.0912739 
-1.73303 0.0453809 0.0908552 
-1.72425 0.0689518 0.0904365 
-1.73224 0.069271 0.0908552 
-1.74706 0.0943113 0.0916926 
-1.74506 0.0942037 0.0915879 
-1.7095 -0.169124 -0.333916 
-1.71146 -0.169318 -0.334297 
-1.71561 -0.145572 -0.334679 
-1.71757 -0.145738 -0.335061 
-1.71939 -0.122343 -0.335061 
-1.71939 -0.122343 -0.335061 
-1.70721 -0.0975403 -0.332389 
-1.71309 -0.0978763 -0.333534 
-1.72214 -0.0742867 -0.335061 
-1.72214 -0.0742867 -0.335061 
-1.71907 -0.0504203 -0.334297 
-1.71318 -0.0502476 -0.333153 
-1.71372 -0.0263229 -0.333153 
-1.71764 -0.0263832 -0.333916 
-1.72766 -0.00241227 -0.335824 
-1.71392 -0.00239308 -0.333153 
-1.71771 0.0215865 -0.333916 
-1.71771 0.0215865 -0.333916 
-1.731 0.0453278 -0.336587 
-1.73492 0.0454305 -0.33735 
-1.72432 0.0689545 -0.335442 
-1.71844 0.0687192 -0.334297 
-1.71927 0.0928114 -0.334679 
-1.72515 0.0931289 -0.335824 
-1.71703 -0.169869 0.150954 
-1.72892 -0.171046 0.152 
-1.70732 -0.144868 0.149908 
-1.72122 -0.146047 0.151128 
-1.73696 -0.123593 0.152348 
-1.72106 -0.122461 0.150954 
-1.73056 -0.0988742 0.151651 
-1.71464 -0.097965 0.150256 
-1.73575 -0.0748739 0.152 
-1.72182 -0.0742729 0.150779 
-1.7406 -0.0510517 0.152348 
-1.73662 -0.0509349 0.152 
-1.72919 -0.0265605 0.151302 
-1.73118 -0.0265911 0.151477 
-1.73338 -0.00242025 0.151651 
-1.72939 -0.00241469 0.151302 
-1.73723 0.0218318 0.152 
-1.71531 0.0215564 0.150082 
-1.73677 0.0454789 0.152 
-1.72482 0.0451659 0.150954 
-1.74792 0.0698982 0.153045 
-1.73598 0.0694205 0.152 
-1.72887 0.0933296 0.151477 
-1.74081 0.093974 0.152523 
-1.71416 -0.169585 -0.272822 
-1.71809 -0.169974 -0.273447 
-1.70849 -0.144967 -0.27157 
-1.70455 -0.144633 -0.270945 
-1.7103 -0.121696 -0.27157 
-1.7103 -0.121696 -0.27157 
-1.71972 -0.0982552 -0.272822 
-1.71184 -0.0978045 -0.27157 
-1.70909 -0.0737238 -0.270945 
-1.71303 -0.073894 -0.27157 
-1.71389 -0.0502683 -0.27157 
-1.72179 -0.0504999 -0.272822 
-1.71837 -0.0263944 -0.272196 
-1.71442 -0.0263337 -0.27157 
-1.71858 -0.00239959 -0.272196 
-1.71463 -0.00239407 -0.27157 
-1.72239 0.0216454 -0.272822 
-1.71844 0.0215957 -0.272196 
-1.71799 0.0449871 -0.272196 
-1.71799 0.0449871 -0.272196 
-1.72905 0.0691435 -0.274073 
-1.7251 0.0689856 -0.273447 
-1.71608 0.0926391 -0.272196 
-1.71608 0.0926391 -0.272196 
-1.72062 -0.170224 0.212296 
-1.72457 -0.170615 0.212784 
-1.72085 -0.146016 0.212053 
-1.71293 -0.145345 0.211078 
-1.71079 -0.121731 0.21059 
-1.71475 -0.122013 0.211078 
-1.73016 -0.0988517 0.212784 
-1.73413 -0.0990782 0.213271 
-1.71948 -0.0741719 0.211321 
-1.71353 -0.0739153 0.21059 
-1.71835 -0.0503991 0.211078 
-1.73224 -0.0508065 0.212784 
-1.72881 -0.0265547 0.212296 
-1.71889 -0.0264023 0.211078 
-1.71909 -0.0024003 0.211078 
-1.72306 -0.00240585 0.211565 
-1.72689 0.0217019 0.212053 
-1.74079 0.0218765 0.213759 
-1.72842 0.0452603 0.212296 
-1.72247 0.0451045 0.211565 
-1.72565 0.0690076 0.212053 
-1.73359 0.0693249 0.213028 
-1.73443 0.0936298 0.213271 
-1.72848 0.0933088 0.21254 
-1.71271 -0.169442 -0.211321 
-1.71666 -0.169833 -0.211809 
-1.71887 -0.145848 -0.211809 
-1.72678 -0.146519 -0.212784 
-1.71277 -0.121872 -0.210834 
-1.71277 -0.121872 -0.210834 
-1.71827 -0.0981723 -0.211321 
-1.72224 -0.0983988 -0.211809 
-1.72741 -0.0745141 -0.212296 
-1.71353 -0.0739153 -0.21059 
-1.71041 -0.0501663 -0.210103 
-1.7243 -0.0505737 -0.211809 
-1.72484 -0.0264938 -0.211809 
-1.72484 -0.0264938 -0.211809 
-1.7171 -0.00239753 -0.210834 
-1.71115 -0.00238921 -0.210103 
-1.72491 0.021677 -0.211809 
-1.72888 0.0217269 -0.212296 
-1.72247 0.0451045 -0.211565 
-1.72445 0.0451564 -0.211809 
-1.7197 0.0687697 -0.211321 
-1.72367 0.0689283 -0.211809 
-1.7265 0.0932018 -0.212296 
-1.73443 0.0936298 -0.213271 
-1.71219 -0.169391 0.272509 
-1.70826 -0.169002 0.271883 
-1.71046 -0.145134 0.271883 
-1.71833 -0.145802 0.273135 
-1.72015 -0.122397 0.273135 
-1.71227 -0.121836 0.271883 
-1.70986 -0.0976919 0.271257 
-1.71775 -0.0981426 0.272509 
-1.72685 -0.07449 0.27376 
-1.72685 -0.07449 0.27376 
-1.71586 -0.0503262 0.271883 
-1.71192 -0.0502104 0.271257 
-1.72035 -0.0264248 0.272509 
-1.72825 -0.0265461 0.27376 
-1.72845 -0.00241338 0.27376 
-1.72055 -0.00240234 0.272509 
-1.71647 0.0215709 0.271883 
-1.72042 0.0216205 0.272509 
-1.72391 0.0451422 0.273135 
-1.73181 0.0453491 0.274386 
-1.71918 0.0687488 0.272509 
-1.71918 0.0687488 0.272509 
-1.722 0.0929586 0.273135 
-1.72989 0.0933845 0.274386 
-1.72099 -0.170261 -0.151302 
-1.71703 -0.169869 -0.150954 
-1.71129 -0.145205 -0.150256 
-1.71526 -0.145542 -0.150605 
-1.72503 -0.122744 -0.151302 
-1.72106 -0.122461 -0.150954 
-1.71464 -0.097965 -0.150256 
-1.71067 -0.0977377 -0.149908 
-1.71983 -0.074187 -0.150605 
-1.71783 -0.0741011 -0.150431 
-1.72467 -0.0505844 -0.150954 
-1.7167 -0.0503507 -0.150256 
-1.70927 -0.0262545 -0.149559 
-1.71325 -0.0263157 -0.149908 
-1.72541 -0.00240912 -0.150954 
-1.72541 -0.00240912 -0.150954 
-1.72527 0.0216816 -0.150954 
-1.7173 0.0215814 -0.150256 
-1.72083 0.0450616 -0.150605 
-1.72083 0.0450616 -0.150605 
-1.72801 0.0691021 -0.151302 
-1.72005 0.0687836 -0.150605 
-1.71892 0.0927926 -0.150605 
-1.73086 0.093437 -0.151651 
-1.7095 -0.169124 0.333916 
-1.71536 -0.169704 0.335061 
-1.70974 -0.145074 0.333534 
-1.70583 -0.144742 0.332771 
-1.70764 -0.121507 0.332771 
-1.71743 -0.122203 0.334679 
-1.72681 -0.0986602 0.336205 
-1.71701 -0.0981002 0.334297 
-1.71037 -0.073779 0.332771 
-1.72017 -0.0742021 0.334679 
-1.71515 -0.0503051 0.333534 
-1.72692 -0.0506505 0.335824 
-1.71961 -0.0264134 0.334297 
-1.70979 -0.0262626 0.332389 
-1.7257 -0.00240953 0.335442 
-1.72374 -0.00240679 0.335061 
-1.72164 0.0216359 0.334679 
-1.71968 0.0216112 0.334297 
-1.71333 0.0448652 0.333153 
-1.70941 0.0447624 0.332389 
-1.73609 0.0694252 0.337732 
-1.72432 0.0689545 0.335442 
-1.73103 0.0934464 0.336969 
-1.71535 0.0925998 0.333916 
-1.72719 -0.170874 -0.0909599 
-1.73116 -0.171267 -0.0911692 
-1.73338 -0.14708 -0.0911692 
-1.72542 -0.146404 -0.0907505 
-1.7153 -0.122052 -0.0901225 
-1.73124 -0.123186 -0.0909599 
-1.7288 -0.098774 -0.0907505 
-1.73678 -0.0992297 -0.0911692 
-1.73001 -0.0746265 -0.0907505 
-1.71804 -0.0741101 -0.0901225 
-1.73088 -0.0507666 -0.0907505 
-1.73487 -0.0508837 -0.0909599 
-1.73941 -0.0267175 -0.0911692 
-1.73142 -0.0265948 -0.0907505 
-1.73162 -0.0024178 -0.0907505 
-1.73162 -0.0024178 -0.0907505 
-1.73548 0.0218098 -0.0909599 
-1.74347 0.0219102 -0.0913786 
-1.73103 0.0453286 -0.0907505 
-1.73103 0.0453286 -0.0907505 
-1.73423 0.0693508 -0.0909599 
-1.74221 0.06967 -0.0913786 
-1.74506 0.0942037 -0.0915879 
-1.73708 0.093773 -0.0911692 
-1.72014 -0.170176 0.399063 
-1.72789 -0.170944 0.400863 
-1.73399 -0.147132 0.401763 
-1.74176 -0.147791 0.403562 
-1.72806 -0.12296 0.399963 
-1.72417 -0.122683 0.399063 
-1.7335 -0.0990424 0.400863 
-1.73739 -0.0992647 0.401763 
-1.73471 -0.0748293 0.400863 
-1.73471 -0.0748293 0.400863 
-1.72389 -0.0505617 0.398163 
-1.73558 -0.0509045 0.400863 
-1.74002 -0.0267269 0.401763 
-1.74392 -0.0267867 0.402662 
-1.72853 -0.00241349 0.399063 
-1.73243 -0.00241893 0.399963 
-1.73229 0.0217698 0.399963 
-1.74788 0.0219657 0.403562 
-1.74742 0.0457578 0.403562 
-1.73573 0.0454518 0.400863 
-1.73494 0.0693791 0.400863 
-1.73884 0.0695349 0.401763 
-1.74159 0.0940161 0.402662 
-1.75326 0.0946464 0.405362 
-1.71337 -0.169507 -0.030053 
-1.71735 -0.169901 -0.0301229 
-1.72753 -0.146583 -0.0302625 
-1.72354 -0.146245 -0.0301927 
-1.73136 -0.123194 -0.0302974 
-1.72139 -0.122484 -0.0301229 
-1.71494 -0.097982 -0.0299832 
-1.72692 -0.0986664 -0.0301927 
-1.73213 -0.0747176 -0.0302625 
-1.73213 -0.0747176 -0.0302625 
-1.72899 -0.0507113 -0.0301927 
-1.725 -0.050594 -0.0301229 
-1.72953 -0.0265658 -0.0301927 
-1.73753 -0.0266886 -0.0303323 
-1.73773 -0.00242634 -0.0303323 
-1.72374 -0.00240679 -0.0300879 
-1.7256 0.0216857 -0.0301229 
-1.7296 0.0217359 -0.0301927 
-1.73514 0.0454363 -0.0302974 
-1.74114 0.0455933 -0.0304021 
-1.72236 0.0688761 -0.0300879 
-1.72836 0.0691158 -0.0301927 
-1.73521 0.0936718 -0.0303323 
-1.7392 0.0938874 -0.0304021 
-1.72061 -0.170223 0.463286 
-1.71292 -0.169462 0.461216 
-1.71512 -0.14553 0.461216 
-1.71897 -0.145856 0.462251 
-1.72465 -0.122717 0.463286 
-1.73621 -0.123539 0.466392 
-1.71848 -0.098184 0.461216 
-1.70883 -0.097633 0.458627 
-1.73705 -0.0749301 0.465874 
-1.7274 -0.0745138 0.463286 
-1.73599 -0.0509164 0.465357 
-1.71475 -0.0502934 0.459663 
-1.73846 -0.0267029 0.465874 
-1.72494 -0.0264953 0.462251 
-1.72901 -0.00241415 0.463286 
-1.72901 -0.00241415 0.463286 
-1.72114 0.0216297 0.461216 
-1.72114 0.0216297 0.461216 
-1.72841 0.0452601 0.463286 
-1.74966 0.0458164 0.46898 
-1.74307 0.0697042 0.467427 
-1.71991 0.0687779 0.461216 
-1.73807 0.0938261 0.466392 
-1.73035 0.0934096 0.464321 
-1.70597 -0.462862 -0.473639 
-1.69478 -0.459827 -0.470533 
-1.70096 -0.436416 -0.470533 
-1.7047 -0.437376 -0.471568 
-1.71057 -0.413831 -0.471568 
-1.6993 -0.411105 -0.468462 
-1.70111 -0.386483 -0.467427 
-1.70488 -0.387339 -0.468462 
-1.71384 -0.3646 -0.469498 
-1.71006 -0.363796 -0.468462 
-1.70354 -0.337928 -0.465357 
-1.69596 -0.336425 -0.463286 
-1.71184 -0.315108 -0.466392 
-1.70804 -0.314408 -0.465357 
-1.71612 -0.290876 -0.466392 
-1.70469 -0.288939 -0.463286 
-1.70088 -0.264222 -0.461216 
-1.70852 -0.265408 -0.463286 
-1.71205 -0.241528 -0.463286 
-1.71971 -0.242607 -0.465357 
-1.70756 -0.216926 -0.461216 
-1.69989 -0.215952 -0.459145 
-1.71042 -0.193063 -0.461216 
-1.71426 -0.193497 -0.462251 
-1.72728 -0.468644 0.0312398 
-1.69833 -0.46079 0.0307162 
-1.70452 -0.43733 0.0307162 
-1.70452 -0.43733 0.0307162 
-1.71039 -0.413787 0.0307162 
-1.71039 -0.413787 0.0307162 
-1.7082 -0.388094 0.0305766 
-1.7004 -0.386322 0.030437 
-1.71143 -0.364089 0.0305417 
-1.71143 -0.364089 0.0305417 
-1.72021 -0.341236 0.0306115 
-1.70845 -0.338901 0.0304021 
-1.71099 -0.314951 0.0303672 
-1.71492 -0.315675 0.030437 
-1.72119 -0.291735 0.0304719 
-1.71724 -0.291066 0.0304021 
-1.71516 -0.266441 0.0302974 
-1.71319 -0.266134 0.0302625 
-1.7207 -0.242747 0.0303323 
-1.7207 -0.242747 0.0303323 
-1.73182 -0.220008 0.0304719 
-1.71595 -0.217991 0.0301927 
-1.71485 -0.193563 0.0301229 
-1.71882 -0.194012 0.0301927 
-1.70772 -0.463336 -0.408511 
-1.70772 -0.463336 -0.408511 
-1.70262 -0.436841 -0.405812 
-1.69507 -0.434904 -0.404012 
-1.70469 -0.412408 -0.404912 
-1.70848 -0.413324 -0.405812 
-1.71028 -0.388566 -0.404912 
-1.71028 -0.388566 -0.404912 
-1.70404 -0.362516 -0.402212 
-1.71166 -0.364138 -0.404012 
-1.72035 -0.341262 -0.404912 
-1.71461 -0.340124 -0.403562 
-1.71339 -0.315393 -0.402212 
-1.70572 -0.313982 -0.400413 
-1.70999 -0.289837 -0.400413 
-1.71767 -0.29114 -0.402212 
-1.72538 -0.268028 -0.403112 
-1.71382 -0.266233 -0.400413 
-1.71351 -0.241734 -0.399513 
-1.71351 -0.241734 -0.399513 
-1.72442 -0.219068 -0.401313 
-1.72055 -0.218577 -0.400413 
-1.7215 -0.194314 -0.399963 
-1.70988 -0.193003 -0.397264 
-1.71168 -0.464412 0.0929487 
-1.71168 -0.464412 0.0929487 
-1.71792 -0.440768 0.0929487 
-1.71018 -0.438783 0.09253 
-1.70442 -0.412344 0.0919019 
-1.70831 -0.413283 0.0921113 
-1.71391 -0.389391 0.0921113 
-1.71781 -0.390276 0.0923206 
-1.7113 -0.364061 0.0916926 
-1.7074 -0.36323 0.0914833 
-1.71224 -0.339654 0.0914833 
-1.71616 -0.340431 0.0916926 
-1.72855 -0.318183 0.0921113 
-1.71283 -0.315291 0.0912739 
-1.71318 -0.290378 0.0910646 
-1.71318 -0.290378 0.0910646 
-1.71899 -0.267036 0.0911692 
-1.72492 -0.267956 0.0914833 
-1.72453 -0.243288 0.0912739 
-1.70871 -0.241056 0.0904365 
-1.71385 -0.217726 0.0905412 
-1.72376 -0.218984 0.0910646 
-1.72665 -0.194896 0.0910646 
-1.71871 -0.194 0.0906459 
-1.69201 -0.459076 -0.340785 
-1.69201 -0.459076 -0.340785 
-1.70389 -0.437167 -0.34193 
-1.70389 -0.437167 -0.34193 
-1.70403 -0.412248 -0.340785 
-1.6964 -0.410401 -0.339258 
-1.7077 -0.387981 -0.340403 
-1.7077 -0.387981 -0.340403 
-1.70713 -0.363173 -0.339258 
-1.69945 -0.361539 -0.337732 
-1.70235 -0.337691 -0.33735 
-1.70235 -0.337691 -0.33735 
-1.71263 -0.315254 -0.338495 
-1.70877 -0.314543 -0.337732 
-1.70724 -0.289371 -0.336587 
-1.70724 -0.289371 -0.336587 
-1.71107 -0.265805 -0.336587 
-1.71301 -0.266106 -0.336969 
-1.71656 -0.242163 -0.336969 
-1.70878 -0.241066 -0.335442 
-1.71194 -0.217483 -0.335442 
-1.71584 -0.217978 -0.336205 
-1.71676 -0.193779 -0.335824 
-1.71286 -0.193339 -0.335061 
-1.70366 -0.462237 0.15444 
-1.69213 -0.459106 0.153394 
-1.71373 -0.439693 0.154789 
-1.70216 -0.436723 0.153743 
-1.71189 -0.414149 0.154091 
-1.70027 -0.411338 0.153045 
-1.70973 -0.388442 0.153394 
-1.69613 -0.385352 0.152174 
-1.72272 -0.36649 0.154091 
-1.72272 -0.36649 0.154091 
-1.71979 -0.341152 0.153394 
-1.69439 -0.336112 0.151128 
-1.72041 -0.316686 0.153045 
-1.72041 -0.316686 0.153045 
-1.71883 -0.291335 0.152523 
-1.71686 -0.291002 0.152348 
-1.70496 -0.264856 0.150954 
-1.7148 -0.266385 0.151825 
-1.72822 -0.243808 0.152697 
-1.71638 -0.242138 0.151651 
-1.72153 -0.218702 0.151825 
-1.71956 -0.218451 0.151651 
-1.70858 -0.192856 0.150431 
-1.7264 -0.194867 0.152 
-1.70437 -0.462428 -0.279705 
-1.69674 -0.460359 -0.278453 
-1.69145 -0.433975 -0.276576 
-1.6991 -0.435939 -0.277828 
-1.70495 -0.412471 -0.277828 
-1.70879 -0.4134 -0.278453 
-1.69899 -0.386 -0.27595 
-1.69128 -0.384249 -0.274699 
-1.70801 -0.36336 -0.276576 
-1.70801 -0.36336 -0.276576 
-1.71286 -0.339776 -0.276576 
-1.70511 -0.338239 -0.275325 
-1.69795 -0.312552 -0.273447 
-1.70572 -0.313982 -0.274699 
-1.70999 -0.289837 -0.274699 
-1.71389 -0.290498 -0.275325 
-1.69821 -0.263807 -0.272196 
-1.70211 -0.264414 -0.272822 
-1.70955 -0.241175 -0.273447 
-1.70955 -0.241175 -0.273447 
-1.71271 -0.217581 -0.273447 
-1.70096 -0.216087 -0.27157 
-1.70381 -0.192317 -0.27157 
-1.70773 -0.19276 -0.272196 
-1.70892 -0.463663 0.217415 
-1.70509 -0.462623 0.216927 
-1.69977 -0.43611 0.215465 
-1.69977 -0.43611 0.215465 
-1.70562 -0.412632 0.215465 
-1.71141 -0.414033 0.216196 
-1.71508 -0.389658 0.215952 
-1.70734 -0.387899 0.214978 
-1.70088 -0.361843 0.213515 
-1.70088 -0.361843 0.213515 
-1.71544 -0.340289 0.214734 
-1.71934 -0.341061 0.215221 
-1.70826 -0.314448 0.213271 
-1.7024 -0.31337 0.21254 
-1.71057 -0.289936 0.213028 
-1.71449 -0.290599 0.213515 
-1.72029 -0.267238 0.213759 
-1.70264 -0.264495 0.211565 
-1.70813 -0.240974 0.211809 
-1.71206 -0.241529 0.212296 
-1.7172 -0.218151 0.21254 
-1.71917 -0.218401 0.212784 
-1.71811 -0.193931 0.212296 
-1.71219 -0.193263 0.211565 
-1.69934 -0.461063 -0.216196 
-1.69934 -0.461063 -0.216196 
-1.70554 -0.43759 -0.216196 
-1.69784 -0.435616 -0.215221 
-1.69983 -0.411232 -0.214734 
-1.69983 -0.411232 -0.214734 
-1.71315 -0.389218 -0.215709 
-1.71121 -0.388778 -0.215465 
-1.70088 -0.361843 -0.213515 
-1.69894 -0.36143 -0.213271 
-1.71155 -0.339516 -0.214246 
-1.7096 -0.33913 -0.214003 
-1.72387 -0.317323 -0.215221 
-1.70045 -0.313011 -0.212296 
-1.70079 -0.288277 -0.211809 
-1.71253 -0.290268 -0.213271 
-1.71245 -0.266019 -0.212784 
-1.71637 -0.266628 -0.213271 
-1.71206 -0.241529 -0.212296 
-1.70813 -0.240974 -0.211809 
-1.71129 -0.2174 -0.211809 
-1.71917 -0.218401 -0.212784 
-1.726 -0.194822 -0.213271 
-1.71021 -0.19304 -0.211321 
-1.69865 -0.460876 0.278766 
-1.70246 -0.46191 0.279392 
-1.70867 -0.438394 0.279392 
-1.71632 -0.440357 0.280643 
-1.70687 -0.412935 0.27814 
-1.69919 -0.411077 0.276889 
-1.71247 -0.389064 0.27814 
-1.70862 -0.388188 0.277515 
-1.71381 -0.364593 0.277515 
-1.69835 -0.361305 0.275012 
-1.69929 -0.337086 0.274386 
-1.70704 -0.338623 0.275638 
-1.71544 -0.31577 0.276263 
-1.71932 -0.316485 0.276889 
-1.70415 -0.288847 0.27376 
-1.70415 -0.288847 0.27376 
-1.70797 -0.265323 0.27376 
-1.71187 -0.26593 0.274386 
-1.71151 -0.241451 0.27376 
-1.7076 -0.240899 0.273135 
-1.70684 -0.216834 0.272509 
-1.71075 -0.217332 0.273135 
-1.72147 -0.194311 0.274386 
-1.71755 -0.193868 0.27376 
-1.69982 -0.461193 -0.154091 
-1.69213 -0.459106 -0.153394 
-1.69637 -0.435237 -0.15322 
-1.70216 -0.436723 -0.153743 
-1.70801 -0.413212 -0.153743 
-1.69446 -0.409933 -0.152523 
-1.69807 -0.385793 -0.152348 
-1.70585 -0.387559 -0.153045 
-1.70713 -0.363173 -0.152697 
-1.70518 -0.362759 -0.152523 
-1.70611 -0.338438 -0.152174 
-1.69439 -0.336112 -0.151128 
-1.70278 -0.31344 -0.151477 
-1.7067 -0.314161 -0.151825 
-1.71097 -0.290003 -0.151825 
-1.70507 -0.289004 -0.151302 
-1.70496 -0.264856 -0.150954 
-1.70693 -0.265162 -0.151128 
-1.71244 -0.241582 -0.151302 
-1.71638 -0.242138 -0.151651 
-1.7077 -0.216944 -0.150605 
-1.70177 -0.216191 -0.150082 
-1.71056 -0.19308 -0.150605 
-1.71848 -0.193973 -0.151302 
-1.70717 -0.463188 0.343838 
-1.70149 -0.461646 0.342693 
-1.68677 -0.432776 0.338495 
-1.69628 -0.435215 0.340403 
-1.70212 -0.411786 0.340403 
-1.70594 -0.41271 0.341166 
-1.70005 -0.386241 0.338877 
-1.68856 -0.383631 0.336587 
-1.69753 -0.361131 0.33735 
-1.70137 -0.361948 0.338114 
-1.71005 -0.339219 0.338877 
-1.7062 -0.338455 0.338114 
-1.69526 -0.312055 0.335061 
-1.69719 -0.312411 0.335442 
-1.70724 -0.289371 0.336587 
-1.71305 -0.290355 0.337732 
-1.70525 -0.264901 0.335442 
-1.70137 -0.264298 0.334679 
-1.70684 -0.240792 0.335061 
-1.71267 -0.241614 0.336205 
-1.71584 -0.217978 0.336205 
-1.7061 -0.216741 0.334297 
-1.69725 -0.191577 0.332008 
-1.70506 -0.192458 0.333534 
-1.71168 -0.464412 -0.0929487 
-1.71554 -0.465458 -0.093158 
-1.71018 -0.438783 -0.09253 
-1.70825 -0.438286 -0.0924253 
-1.71801 -0.415631 -0.0926346 
-1.71413 -0.414692 -0.0924253 
-1.72365 -0.391603 -0.0926346 
-1.71196 -0.388949 -0.0920066 
-1.71326 -0.364476 -0.0917973 
-1.71716 -0.365308 -0.0920066 
-1.72204 -0.341597 -0.0920066 
-1.72987 -0.343152 -0.0924253 
-1.71873 -0.316376 -0.0915879 
-1.7148 -0.315652 -0.0913786 
-1.71909 -0.291379 -0.0913786 
-1.72696 -0.292714 -0.0917973 
-1.73084 -0.268876 -0.0917973 
-1.71899 -0.267036 -0.0911692 
-1.72256 -0.243009 -0.0911692 
-1.72256 -0.243009 -0.0911692 
-1.73367 -0.220243 -0.0915879 
-1.72971 -0.21974 -0.0913786 
-1.72467 -0.194672 -0.0909599 
-1.7207 -0.194224 -0.0907505 
-1.71336 -0.464867 0.409861 
-1.71712 -0.465888 0.410761 
-1.73093 -0.444105 0.41256 
-1.71583 -0.440231 0.408961 
-1.71416 -0.414699 0.407161 
-1.71416 -0.414699 0.407161 
-1.72738 -0.392452 0.408961 
-1.71978 -0.390725 0.407161 
-1.72119 -0.366165 0.406262 
-1.71738 -0.365354 0.405362 
-1.73373 -0.343916 0.408061 
-1.72608 -0.342399 0.406262 
-1.73447 -0.319274 0.407161 
-1.71914 -0.316451 0.403562 
-1.72344 -0.292117 0.403562 
-1.72344 -0.292117 0.403562 
-1.73115 -0.268925 0.404462 
-1.73115 -0.268925 0.404462 
-1.7193 -0.24255 0.400863 
-1.71544 -0.242006 0.399963 
-1.72248 -0.218822 0.400863 
-1.73022 -0.219804 0.402662 
-1.73312 -0.195625 0.402662 
-1.72537 -0.194751 0.400863 
-1.70605 -0.462884 -0.0308559 
-1.70412 -0.462361 -0.0308209 
-1.71033 -0.438821 -0.0308209 
-1.71227 -0.439318 -0.0308559 
-1.70456 -0.412376 -0.0306115 
-1.69679 -0.410496 -0.0304719 
-1.71795 -0.390309 -0.0307511 
-1.71015 -0.388537 -0.0306115 
-1.7173 -0.365337 -0.0306464 
-1.70752 -0.363257 -0.0304719 
-1.70845 -0.338901 -0.0304021 
-1.70845 -0.338901 -0.0304021 
-1.71886 -0.316399 -0.0305068 
-1.71886 -0.316399 -0.0305068 
-1.7133 -0.290398 -0.0303323 
-1.71724 -0.291066 -0.0304021 
-1.71319 -0.266134 -0.0302625 
-1.72504 -0.267976 -0.0304719 
-1.71872 -0.242468 -0.0302974 
-1.71674 -0.242188 -0.0302625 
-1.71396 -0.217739 -0.0301578 
-1.71595 -0.217991 -0.0301927 
-1.72677 -0.194909 -0.0303323 
-1.72478 -0.194685 -0.0302974 
-1.71529 -0.465391 0.476227 
-1.70224 -0.46185 0.472604 
-1.71967 -0.441217 0.475709 
-1.72154 -0.441697 0.476227 
-1.72184 -0.416556 0.474674 
-1.71996 -0.416102 0.474156 
-1.70865 -0.388195 0.469498 
-1.71995 -0.390763 0.472604 
-1.72895 -0.367816 0.473639 
-1.71384 -0.3646 0.469498 
-1.71112 -0.339432 0.467427 
-1.70544 -0.338304 0.465874 
-1.72134 -0.316856 0.46898 
-1.72894 -0.318255 0.471051 
-1.72374 -0.292168 0.468462 
-1.70469 -0.288939 0.463286 
-1.70852 -0.265408 0.463286 
-1.71233 -0.266001 0.464321 
-1.72353 -0.243147 0.466392 
-1.73692 -0.245036 0.470015 
-1.71139 -0.217413 0.462251 
-1.7248 -0.219117 0.465874 
-1.7181 -0.19393 0.463286 
-1.7181 -0.19393 0.463286 
-1.20917 -0.556411 -0.356653 
-1.23374 -0.567717 -0.3639 
-1.2697 -0.563185 -0.372182 
-1.29796 -0.575718 -0.380464 
-1.32354 -0.565356 -0.38564 
-1.34841 -0.57598 -0.392887 
-1.39206 -0.571777 -0.40324 
-1.41529 -0.581319 -0.409969 
-1.4645 -0.578064 -0.421875 
-1.49146 -0.588703 -0.42964 
-1.53386 -0.58082 -0.439475 
-1.56638 -0.593134 -0.448792 
-1.60175 -0.581089 -0.456557 
-1.6308 -0.59163 -0.464839 
-1.69538 -0.588734 -0.480886 
-1.70268 -0.591269 -0.482956 
-1.707 -0.56652 -0.481921 
-1.70333 -0.565303 -0.480886 
-1.71106 -0.541466 -0.480886 
-1.69264 -0.535637 -0.475709 
-1.69617 -0.511134 -0.474674 
-1.69617 -0.511134 -0.474674 
-1.70305 -0.487699 -0.474674 
-1.70677 -0.488763 -0.475709 
-1.20259 -0.553382 0.023107 
-1.21348 -0.558397 0.0233164 
-1.24849 -0.553775 0.02384 
-1.27042 -0.563505 0.0242588 
-1.30382 -0.556932 0.0247475 
-1.31485 -0.561645 0.0249569 
-1.35216 -0.555388 0.0255154 
-1.37621 -0.565265 0.0259692 
-1.42107 -0.560921 0.0266673 
-1.45083 -0.572668 0.0272258 
-1.48113 -0.560853 0.0276446 
-1.51105 -0.572183 0.0282031 
-1.55273 -0.563305 0.0288314 
-1.59784 -0.579673 0.0296691 
-1.65291 -0.573987 0.0305417 
-1.71714 -0.59629 0.0317285 
-1.70621 -0.56626 0.0313794 
-1.71001 -0.567519 0.0314492 
-1.71395 -0.542382 0.0313794 
-1.72158 -0.544795 0.031519 
-1.70021 -0.512352 0.0309955 
-1.70595 -0.514083 0.0311002 
-1.71672 -0.491614 0.03117 
-1.71672 -0.491614 0.03117 
-1.21974 -0.561275 -0.309983 
-1.2339 -0.567792 -0.313582 
-1.24874 -0.553886 -0.315381 
-1.28437 -0.569689 -0.324379 
-1.32077 -0.564175 -0.331578 
-1.35482 -0.578719 -0.340126 
-1.3844 -0.568631 -0.345525 
-1.41324 -0.580478 -0.352723 
-1.45011 -0.572385 -0.359922 
-1.48999 -0.588126 -0.36982 
-1.52904 -0.578996 -0.377468 
-1.56367 -0.592108 -0.386016 
-1.58461 -0.574871 -0.389165 
-1.62674 -0.590156 -0.399513 
0.0 0.0 0.0 
-1.70468 -0.591963 -0.416609 
-1.70158 -0.564721 -0.41391 
-1.69418 -0.562265 -0.41211 
-1.69815 -0.53738 -0.411211 
-1.70187 -0.538556 -0.41211 
-1.70353 -0.513353 -0.410761 
-1.69793 -0.511667 -0.409411 
-1.69733 -0.486061 -0.407611 
-1.69546 -0.485525 -0.407161 
-1.20293 -0.553542 0.0693975 
-1.21745 -0.560222 0.0702349 
-1.25609 -0.557149 0.0720143 
-1.25244 -0.55553 0.0718049 
-1.30223 -0.556253 0.0742124 
-1.33162 -0.568806 0.0758871 
-1.35975 -0.558506 0.0770385 
-1.38007 -0.566853 0.0781899 
-1.41005 -0.556571 0.079446 
-1.44721 -0.571237 0.0815394 
-1.48866 -0.563706 0.0834235 
-1.52228 -0.576437 0.0853076 
-1.55647 -0.564663 0.086773 
-1.579 -0.572836 0.0880291 
-1.64335 -0.570667 0.0911692 
-1.7075 -0.592943 0.0947281 
-1.72309 -0.571861 0.0951468 
-1.70224 -0.564941 0.0939954 
-1.70615 -0.539913 0.093786 
-1.70235 -0.538708 0.0935767 
-1.71726 -0.517491 0.0939954 
-1.71726 -0.517491 0.0939954 
-1.70887 -0.489366 0.093158 
-1.70119 -0.487166 0.0927393 
-1.21277 -0.55807 -0.2595 
-1.23061 -0.566277 -0.263316 
-1.26701 -0.561992 -0.269422 
-1.28855 -0.571544 -0.274002 
-1.30894 -0.559122 -0.276673 
-1.34325 -0.573775 -0.283924 
-1.38745 -0.569883 -0.291556 
-1.42922 -0.587039 -0.300333 
-1.45544 -0.574486 -0.30415 
-1.481 -0.584577 -0.309492 
-1.52023 -0.575661 -0.31598 
-1.55879 -0.590261 -0.323994 
-1.59641 -0.579152 -0.3301 
-1.62594 -0.589865 -0.336205 
-1.69883 -0.589932 -0.349562 
-1.70307 -0.565216 -0.348799 
-1.70307 -0.565216 -0.348799 
-1.69208 -0.535459 -0.344983 
-1.69208 -0.535459 -0.344983 
-1.6993 -0.512079 -0.344983 
-1.69554 -0.510946 -0.344219 
-1.70809 -0.489141 -0.345364 
-1.69676 -0.485898 -0.343075 
-1.18914 -0.547195 0.114523 
-1.21267 -0.558023 0.116789 
-1.24575 -0.55256 0.119229 
-1.27125 -0.563869 0.121669 
-1.30272 -0.556463 0.123935 
-1.31371 -0.561158 0.124981 
-1.35643 -0.557144 0.128293 
-1.38777 -0.570013 0.131257 
-1.43441 -0.566187 0.134917 
-1.44924 -0.572039 0.136312 
-1.4813 -0.560921 0.138578 
-1.51857 -0.575032 0.142064 
-1.56391 -0.567363 0.14555 
-1.59762 -0.579593 0.148688 
-1.66004 -0.576465 0.153743 
-1.69957 -0.59019 0.157403 
-1.70944 -0.567329 0.157578 
-1.69998 -0.564191 0.156706 
-1.70009 -0.537996 0.156009 
-1.70959 -0.541001 0.15688 
-1.69781 -0.51163 0.155137 
-1.69781 -0.51163 0.155137 
-1.7162 -0.491464 0.156183 
-1.70854 -0.489269 0.155486 
-1.2077 -0.555735 -0.210561 
-1.22385 -0.563167 -0.213377 
-1.25858 -0.558254 -0.21807 
-1.28386 -0.569467 -0.22245 
-1.31703 -0.562575 -0.22683 
-1.33701 -0.57111 -0.230272 
-1.36495 -0.560643 -0.233713 
-1.39602 -0.573402 -0.239032 
-1.44237 -0.56933 -0.245602 
-1.47729 -0.58311 -0.251547 
-1.5056 -0.570122 -0.254988 
-1.54255 -0.584112 -0.261246 
-1.57655 -0.57195 -0.265626 
-1.62483 -0.589465 -0.27376 
-1.69066 -0.587095 -0.283459 
-1.69484 -0.562484 -0.282834 
-1.69484 -0.562484 -0.282834 
-1.70629 -0.539958 -0.283459 
-1.70629 -0.539958 -0.283459 
-1.69466 -0.510681 -0.280331 
-1.69088 -0.509541 -0.279705 
-1.70154 -0.487267 -0.280331 
-1.70154 -0.487267 -0.280331 
-1.19561 -0.55017 0.161599 
-1.21003 -0.556809 0.163549 
-1.23393 -0.547316 0.165742 
-1.26115 -0.559389 0.169398 
-1.30342 -0.556764 0.174029 
-1.32715 -0.566901 0.177198 
-1.34596 -0.552841 0.17866 
-1.37717 -0.565663 0.182804 
-1.41992 -0.560469 0.187435 
-1.45501 -0.574317 0.192066 
-1.49259 -0.565193 0.195966 
-1.51858 -0.575035 0.199378 
-1.55258 -0.563254 0.202791 
-1.57871 -0.572732 0.206203 
-1.65021 -0.573051 0.21449 
-1.7121 -0.594541 0.222533 
-1.70318 -0.565251 0.22034 
-1.69187 -0.561499 0.218877 
-1.69955 -0.537822 0.218877 
-1.70522 -0.539619 0.219609 
-1.7144 -0.516629 0.219852 
-1.68779 -0.508611 0.21644 
-1.69465 -0.485292 0.21644 
-1.69846 -0.486385 0.216927 
-1.22626 -0.564277 -0.165742 
-1.2461 -0.573405 -0.168423 
-1.2684 -0.562609 -0.170373 
-1.28655 -0.570658 -0.172811 
-1.3162 -0.562222 -0.175736 
-1.34176 -0.573139 -0.179148 
-1.38636 -0.569434 -0.184023 
-1.40288 -0.576222 -0.186216 
-1.43839 -0.567757 -0.189872 
-1.47901 -0.583791 -0.195235 
-1.51672 -0.574332 -0.199135 
-1.55199 -0.587688 -0.203766 
-1.57684 -0.572055 -0.205959 
-1.6179 -0.586948 -0.211321 
-1.69522 -0.58868 -0.22034 
-1.69897 -0.589982 -0.220827 
-1.70506 -0.565876 -0.220584 
-1.69752 -0.563375 -0.219609 
-1.69008 -0.534828 -0.217659 
-1.69387 -0.536025 -0.218146 
-1.6992 -0.512047 -0.217902 
-1.7049 -0.513765 -0.218634 
-1.69655 -0.485838 -0.216684 
-1.68892 -0.483652 -0.215709 
-1.19514 -0.549955 0.208371 
-1.2077 -0.555735 0.210561 
-1.24414 -0.551846 0.215567 
-1.2622 -0.559855 0.218695 
-1.28251 -0.547831 0.220885 
-1.31158 -0.560247 0.225891 
-1.35582 -0.55689 0.232149 
-1.38322 -0.568148 0.236842 
-1.41298 -0.557726 0.240596 
-1.43502 -0.566429 0.244351 
-1.47789 -0.559629 0.250295 
-1.51484 -0.573619 0.256553 
-1.55427 -0.563865 0.261871 
-1.58027 -0.573297 0.266251 
-1.63094 -0.566358 0.273447 
-1.70745 -0.592927 0.286275 
-1.70609 -0.566217 0.284711 
-1.71171 -0.568084 0.285649 
-1.70064 -0.53817 0.282521 
-1.70064 -0.53817 0.282521 
-1.7079 -0.514671 0.282521 
-1.7079 -0.514671 0.282521 
-1.71484 -0.491074 0.282521 
-1.70344 -0.487811 0.280643 
-1.20181 -0.553026 -0.115743 
-1.23077 -0.566351 -0.118532 
-1.26396 -0.560638 -0.120972 
-1.28399 -0.569524 -0.12289 
-1.31005 -0.559593 -0.124633 
-1.32654 -0.566637 -0.126202 
-1.36565 -0.560929 -0.129165 
-1.39698 -0.573798 -0.132128 
-1.43997 -0.568381 -0.13544 
-1.46221 -0.577159 -0.137532 
-1.49621 -0.566565 -0.139972 
-1.5372 -0.582087 -0.143807 
-1.57702 -0.572119 -0.14677 
-1.62572 -0.589785 -0.151302 
-1.69392 -0.588229 -0.15688 
-1.69769 -0.589537 -0.157229 
-1.70187 -0.564818 -0.15688 
-1.69242 -0.56168 -0.156009 
-1.70579 -0.539799 -0.156532 
-1.6906 -0.53499 -0.155137 
-1.69209 -0.509905 -0.154614 
-1.69209 -0.509905 -0.154614 
-1.70279 -0.487624 -0.154963 
-1.70087 -0.487075 -0.154789 
-1.18602 -0.545759 0.253776 
-1.19315 -0.549042 0.255302 
-1.23291 -0.546867 0.262172 
-1.25445 -0.55642 0.266751 
-1.29089 -0.55141 0.272857 
-1.32339 -0.565292 0.279726 
-1.34023 -0.550489 0.281634 
-1.37837 -0.566153 0.289648 
-1.42622 -0.562953 0.298044 
-1.43352 -0.565836 0.29957 
-1.48902 -0.563842 0.309492 
-1.51472 -0.573575 0.314835 
-1.55211 -0.563083 0.320941 
-1.59272 -0.577813 0.329336 
-1.65988 -0.576407 0.341548 
-1.7081 -0.593152 0.35147 
-1.69562 -0.562743 0.347272 
-1.69562 -0.562743 0.347272 
-1.70518 -0.539606 0.347654 
-1.70705 -0.540198 0.348036 
-1.70494 -0.513778 0.346128 
-1.69178 -0.509813 0.343456 
-1.69488 -0.485358 0.342693 
-1.69865 -0.486439 0.343456 
-1.21382 -0.558552 -0.0700255 
-1.23015 -0.566066 -0.0709676 
-1.25975 -0.558769 -0.0722236 
-1.28531 -0.570106 -0.073689 
-1.32794 -0.567237 -0.0756778 
-1.34998 -0.576652 -0.0769339 
-1.36714 -0.561541 -0.0774572 
-1.39485 -0.572924 -0.0790273 
-1.43977 -0.568304 -0.0811207 
-1.47321 -0.581503 -0.0830048 
-1.51481 -0.573608 -0.0848889 
-1.53722 -0.582096 -0.086145 
-1.57524 -0.571474 -0.0878197 
-1.61467 -0.585778 -0.0900178 
-1.70938 -0.593598 -0.0948328 
-1.72825 -0.60015 -0.0958795 
-1.71361 -0.568715 -0.0946234 
-1.69845 -0.563682 -0.093786 
-1.70615 -0.539913 -0.093786 
-1.70996 -0.541118 -0.0939954 
-1.71726 -0.517491 -0.0939954 
-1.70579 -0.514033 -0.0933673 
-1.70503 -0.488266 -0.0929487 
-1.70119 -0.487166 -0.0927393 
-1.19673 -0.550685 0.304134 
-1.22505 -0.563719 0.311332 
-1.24518 -0.552306 0.314482 
-1.26477 -0.560998 0.319431 
-1.29568 -0.553458 0.325279 
-1.32973 -0.568002 0.333827 
-1.36097 -0.559006 0.339676 
-1.38981 -0.570853 0.346875 
-1.41024 -0.556644 0.350024 
-1.45011 -0.572385 0.359922 
-1.49624 -0.566575 0.36937 
-1.53086 -0.579687 0.377918 
-1.56629 -0.568225 0.384666 
-1.58094 -0.573541 0.388266 
-1.64209 -0.570228 0.401313 
-1.7194 -0.597078 0.420209 
-1.72747 -0.573314 0.420209 
-1.70713 -0.566562 0.41526 
-1.71116 -0.541496 0.41436 
-1.71116 -0.541496 0.41436 
-1.71473 -0.516727 0.41346 
-1.71846 -0.517852 0.41436 
-1.71419 -0.49089 0.41166 
-1.71045 -0.489817 0.410761 
-1.20622 -0.555053 -0.0231768 
-1.24255 -0.571772 -0.0238749 
-1.27591 -0.565937 -0.0243636 
-1.29601 -0.574856 -0.0247475 
-1.32037 -0.564002 -0.0250617 
-1.3314 -0.568715 -0.0252711 
-1.37806 -0.566025 -0.0260041 
-1.4058 -0.577422 -0.0265277 
-1.43223 -0.565326 -0.0268767 
-1.46013 -0.576339 -0.0274003 
-1.50357 -0.569351 -0.0280635 
-1.54471 -0.58493 -0.0288314 
-1.58844 -0.576263 -0.0294946 
-1.60912 -0.583765 -0.0298785 
-1.71525 -0.595634 -0.0316936 
-1.71191 -0.568149 -0.0314841 
-1.71191 -0.568149 -0.0314841 
-1.70824 -0.540572 -0.0312747 
-1.70061 -0.538159 -0.0311351 
-1.70978 -0.515237 -0.03117 
-1.70595 -0.514083 -0.0311002 
-1.71672 -0.491614 -0.03117 
-1.69942 -0.486659 -0.0308559 
-1.1846 -0.545105 0.349406 
-1.21619 -0.559642 0.358723 
-1.24851 -0.553786 0.36597 
-1.27147 -0.563969 0.372699 
-1.30044 -0.555491 0.378911 
-1.31999 -0.563838 0.384605 
-1.35096 -0.554896 0.391334 
-1.39385 -0.572511 0.403758 
-1.42856 -0.563878 0.411522 
-1.44294 -0.569552 0.415663 
-1.48508 -0.562349 0.425499 
-1.51579 -0.573979 0.434298 
-1.56179 -0.566594 0.445169 
-1.59085 -0.577136 0.453451 
-1.64428 -0.57099 0.466392 
-1.71728 -0.596339 0.487097 
-1.71617 -0.569563 0.484509 
-1.71067 -0.567737 0.482956 
-1.72211 -0.544963 0.483992 
-1.70738 -0.5403 0.479851 
-1.70911 -0.515036 0.478298 
-1.70727 -0.514479 0.47778 
-1.72163 -0.493018 0.479851 
-1.7142 -0.49089 0.47778 
-0.838146 -0.571102 -0.27176 
-0.841339 -0.573277 -0.272795 
-0.849163 -0.561623 -0.272795 
-0.855609 -0.565886 -0.274866 
-0.874809 -0.561186 -0.278489 
-0.887817 -0.569531 -0.28263 
-0.911988 -0.567441 -0.287807 
-0.92839 -0.577647 -0.292983 
-0.933154 -0.562471 -0.291948 
-0.919918 -0.554492 -0.287807 
-0.942489 -0.550525 -0.292466 
-0.952498 -0.556372 -0.295571 
-0.97867 -0.55348 -0.301265 
-0.98876 -0.559186 -0.304371 
-1.00315 -0.549211 -0.306442 
-1.0201 -0.558488 -0.311618 
-1.04658 -0.554134 -0.317312 
-1.06536 -0.564078 -0.323006 
-1.08001 -0.552668 -0.325077 
-1.09721 -0.561469 -0.330253 
-1.12909 -0.558275 -0.3375 
-1.1516 -0.569406 -0.344229 
-1.18036 -0.563256 -0.350441 
-1.18908 -0.567416 -0.353029 
-0.84114 -0.573142 0.0177666 
-0.84114 -0.573142 0.0177666 
-0.85063 -0.562593 0.0178015 
-0.865642 -0.572521 0.0181156 
-0.863452 -0.553901 0.0179062 
-0.875234 -0.561459 0.0181505 
-0.910058 -0.566241 0.018709 
-0.925339 -0.575749 0.0190231 
-0.943661 -0.568804 0.0192326 
-0.931673 -0.561577 0.0189882 
-0.930694 -0.543635 0.0188137 
-0.947961 -0.553721 0.0191627 
-0.973006 -0.550276 0.0195118 
-0.98693 -0.558151 0.019791 
-0.994532 -0.544491 0.019791 
-1.00681 -0.551213 0.0200354 
-1.03385 -0.547395 0.0204193 
-1.04799 -0.55488 0.0206986 
-1.07699 -0.551125 0.0211174 
-1.08411 -0.554769 0.021257 
-1.106 -0.54686 0.0215363 
-1.12751 -0.557495 0.0219551 
-1.16045 -0.553756 0.0224438 
-1.19113 -0.568396 0.0230372 
-0.83098 -0.566219 -0.232149 
-0.829369 -0.565121 -0.2317 
-0.835457 -0.552557 -0.23125 
-0.853336 -0.564383 -0.236199 
-0.877535 -0.562935 -0.240698 
-0.885737 -0.568196 -0.242947 
-0.89845 -0.559019 -0.244297 
-0.918306 -0.571373 -0.249696 
-0.931298 -0.561352 -0.251045 
-0.934636 -0.563364 -0.251945 
-0.932219 -0.544526 -0.249246 
-0.940632 -0.549441 -0.251495 
-0.966871 -0.546806 -0.256444 
-0.988922 -0.559277 -0.262293 
-1.0068 -0.551204 -0.264992 
-1.02218 -0.559627 -0.269041 
-1.0385 -0.54986 -0.271291 
-1.05745 -0.55989 -0.27624 
-1.08251 -0.553949 -0.280739 
-1.09639 -0.561051 -0.284338 
-1.1145 -0.551063 -0.287038 
-1.13022 -0.558837 -0.291087 
-1.16254 -0.554752 -0.297385 
-1.18364 -0.564823 -0.302784 
-0.85332 -0.581441 0.0541154 
-0.836814 -0.570194 0.0530687 
-0.837933 -0.554195 0.05265 
-0.839599 -0.555297 0.0527546 
-0.860719 -0.552148 0.053592 
-0.887616 -0.569402 0.0552668 
-0.891991 -0.555 0.0550574 
-0.903862 -0.562385 0.0557901 
-0.927117 -0.558831 0.0567322 
-0.925406 -0.5578 0.0566275 
-0.936458 -0.547003 0.0568368 
-0.933009 -0.544988 0.0566275 
-0.952697 -0.53879 0.0573602 
-0.968343 -0.547639 0.0583023 
-0.996824 -0.545745 0.0595583 
-1.0161 -0.556296 0.0607097 
-1.03082 -0.545793 0.0611284 
-1.03788 -0.549531 0.0615471 
-1.06857 -0.546815 0.0629078 
-1.08991 -0.557733 0.0641639 
-1.1136 -0.55062 0.0651059 
-1.12435 -0.555931 0.065734 
-1.13741 -0.542759 0.066048 
-1.16264 -0.554801 0.0675134 
-0.835546 -0.56933 -0.196533 
-0.835546 -0.56933 -0.196533 
-0.831854 -0.550175 -0.193862 
-0.844954 -0.558839 -0.196915 
-0.875809 -0.561828 -0.202258 
-0.882419 -0.566068 -0.203784 
-0.908476 -0.565257 -0.207982 
-0.910143 -0.566294 -0.208363 
-0.923102 -0.556411 -0.209508 
-0.918058 -0.553371 -0.208363 
-0.937467 -0.547592 -0.211035 
-0.956114 -0.558484 -0.215233 
-0.967236 -0.547013 -0.215996 
-0.979199 -0.553778 -0.218667 
-1.00052 -0.547767 -0.22172 
-1.02118 -0.559081 -0.226299 
-1.04797 -0.554874 -0.230497 
-1.05838 -0.560386 -0.232787 
-1.07659 -0.55092 -0.235077 
-1.09756 -0.561652 -0.239656 
-1.11928 -0.553427 -0.242709 
-1.14216 -0.564739 -0.24767 
-1.15879 -0.552965 -0.249578 
-1.18714 -0.566493 -0.255684 
-0.844653 -0.575535 0.0894218 
-0.843007 -0.574413 0.0892475 
-0.849184 -0.561637 0.0890732 
-0.844199 -0.558339 0.0885502 
-0.850235 -0.545422 0.0883759 
-0.873713 -0.560483 0.0908163 
-0.901658 -0.561014 0.092908 
-0.920266 -0.572592 0.0948254 
-0.926562 -0.558497 0.0946511 
-0.92315 -0.55644 0.0943025 
-0.930734 -0.543659 0.0943025 
-0.944497 -0.551698 0.095697 
-0.974653 -0.551208 0.0979631 
-0.971185 -0.549246 0.0976144 
-0.996142 -0.545372 0.0993575 
-1.00138 -0.548242 0.0998805 
-1.04768 -0.554718 0.103715 
-1.04064 -0.550988 0.103018 
-1.07838 -0.551835 0.105981 
-1.0837 -0.554558 0.106504 
-1.11446 -0.551043 0.10877 
-1.13589 -0.56164 0.110862 
-1.15082 -0.549158 0.111559 
-1.17239 -0.559455 0.113651 
-0.832543 -0.567284 -0.159563 
-0.829278 -0.565059 -0.158937 
-0.846876 -0.56011 -0.160815 
-0.856762 -0.566648 -0.162692 
-0.867915 -0.556764 -0.163318 
-0.871241 -0.558897 -0.163943 
-0.895636 -0.557267 -0.167072 
-0.915763 -0.56979 -0.170826 
-0.932185 -0.561886 -0.172391 
-0.920343 -0.554748 -0.170201 
-0.929609 -0.543002 -0.170514 
-0.944961 -0.551969 -0.173329 
-0.96977 -0.548446 -0.176458 
-0.988684 -0.559143 -0.1799 
-1.00496 -0.550201 -0.181464 
-1.00843 -0.552098 -0.18209 
-1.0335 -0.547208 -0.185218 
-1.05095 -0.556451 -0.188347 
-1.08148 -0.553422 -0.192414 
-1.08851 -0.557021 -0.193666 
-1.10672 -0.547213 -0.195543 
-1.12796 -0.55772 -0.199298 
-1.16417 -0.555528 -0.204303 
-1.18556 -0.565737 -0.208058 
-0.838279 -0.571192 0.12455 
-0.830076 -0.565603 0.123332 
-0.832829 -0.550819 0.122601 
-0.837796 -0.554104 0.123332 
-0.86383 -0.554143 0.126013 
-0.868842 -0.557359 0.126744 
-0.888243 -0.552667 0.12845 
-0.910154 -0.566301 0.131619 
-0.928269 -0.559526 0.133081 
-0.928269 -0.559526 0.133081 
-0.923897 -0.539666 0.131375 
-0.93761 -0.547675 0.133325 
-0.95726 -0.541371 0.135031 
-0.976267 -0.552121 0.137712 
-1.00642 -0.551 0.140881 
-1.00642 -0.551 0.140881 
-1.02104 -0.54061 0.141856 
-1.04735 -0.554544 0.145512 
-1.06913 -0.547101 0.147462 
-1.09387 -0.559761 0.150874 
-1.10148 -0.544626 0.150874 
-1.11928 -0.553424 0.153312 
-1.14839 -0.548002 0.156236 
-1.17168 -0.559116 0.159405 
-0.836638 -0.570074 -0.124307 
-0.823514 -0.561132 -0.122357 
-0.822894 -0.544249 -0.121138 
-0.841107 -0.556295 -0.123819 
-0.862159 -0.553071 -0.125769 
-0.887222 -0.569149 -0.129425 
-0.893299 -0.555813 -0.129182 
-0.906783 -0.564203 -0.131131 
-0.921469 -0.555427 -0.132106 
-0.923169 -0.556452 -0.13235 
-0.93761 -0.547675 -0.133325 
-0.947894 -0.553683 -0.134787 
-0.969356 -0.548212 -0.136737 
-0.988363 -0.558961 -0.139419 
-1.00816 -0.551954 -0.141125 
-1.02906 -0.563393 -0.14405 
-1.03682 -0.54897 -0.14405 
-1.05261 -0.55733 -0.146243 
-1.07973 -0.552526 -0.148924 
-1.0974 -0.56157 -0.151362 
-1.12284 -0.555184 -0.153799 
-1.12639 -0.556944 -0.154287 
-1.16273 -0.554841 -0.158186 
-1.18243 -0.564245 -0.160868 
-0.842338 -0.573958 0.16144 
-0.845603 -0.576183 0.162066 
-0.83699 -0.553572 0.158937 
-0.840286 -0.555751 0.159563 
-0.856277 -0.549298 0.161127 
-0.871241 -0.558897 0.163943 
-0.895636 -0.557267 0.167072 
-0.905699 -0.563529 0.168949 
-0.918651 -0.553728 0.169888 
-0.915267 -0.551689 0.169262 
-0.931315 -0.543999 0.170826 
-0.933021 -0.544995 0.171139 
-0.956014 -0.540667 0.173955 
-0.96977 -0.548446 0.176458 
-0.989368 -0.541663 0.178648 
-1.0067 -0.55115 0.181777 
-1.0335 -0.547208 0.185218 
-1.03699 -0.549057 0.185844 
-1.06214 -0.543523 0.188973 
-1.07445 -0.549822 0.191163 
-1.10672 -0.547213 0.195543 
-1.12796 -0.55772 0.199298 
-1.14634 -0.547021 0.201175 
-1.15704 -0.552126 0.203052 
-0.838067 -0.571048 -0.0887245 
-0.833128 -0.567682 -0.0882016 
-0.839214 -0.555042 -0.0880273 
-0.840875 -0.556141 -0.0882016 
-0.867005 -0.55618 -0.090119 
-0.882098 -0.565862 -0.0916878 
-0.905041 -0.563119 -0.0932566 
-0.9135 -0.568382 -0.0941282 
-0.921443 -0.555412 -0.0941282 
-0.911205 -0.54924 -0.0930823 
-0.929014 -0.542654 -0.0941282 
-0.949658 -0.554713 -0.0962199 
-0.972919 -0.550227 -0.0977887 
-0.976388 -0.552189 -0.0981374 
-0.999637 -0.547285 -0.0997062 
-1.00837 -0.552069 -0.100578 
-1.04944 -0.55565 -0.10389 
-1.06177 -0.562176 -0.10511 
-1.07306 -0.549112 -0.105458 
-1.08547 -0.555465 -0.106679 
-1.11803 -0.552809 -0.109119 
-1.13411 -0.560757 -0.110688 
-1.167 -0.556881 -0.113128 
-1.1706 -0.558597 -0.113477 
-0.832302 -0.567119 0.19577 
-0.830679 -0.566014 0.195388 
-0.841679 -0.556673 0.196152 
-0.851504 -0.563171 0.198441 
-0.860937 -0.552287 0.198823 
-0.862589 -0.553347 0.199205 
-0.89014 -0.553848 0.203784 
-0.910143 -0.566294 0.208363 
-0.92142 -0.555398 0.209127 
-0.919739 -0.554384 0.208745 
-0.917124 -0.535709 0.206455 
-0.930686 -0.543631 0.209508 
-0.963819 -0.54508 0.215233 
-0.965528 -0.546047 0.215614 
-0.990185 -0.542111 0.21943 
-0.991907 -0.543053 0.219812 
-1.02368 -0.542013 0.225155 
-1.04103 -0.551199 0.228971 
-1.06785 -0.546448 0.233169 
-1.07659 -0.55092 0.235077 
-1.09288 -0.540375 0.236985 
-1.1228 -0.555168 0.243472 
-1.14639 -0.547046 0.246907 
-1.16234 -0.554656 0.250341 
-0.833513 -0.567945 -0.0528593 
-0.830212 -0.565696 -0.05265 
-0.846262 -0.559704 -0.0531733 
-0.847928 -0.560806 -0.053278 
-0.89266 -0.572637 -0.0555808 
-0.889297 -0.570481 -0.0553714 
-0.910645 -0.566606 -0.0562088 
-0.917428 -0.570827 -0.0566275 
-0.940801 -0.56708 -0.0575696 
-0.93738 -0.565018 -0.0573602 
-0.938183 -0.54801 -0.0569415 
-0.950255 -0.555062 -0.0576742 
-0.970082 -0.548622 -0.0584069 
-0.994421 -0.562387 -0.0598723 
-1.0231 -0.560132 -0.0611284 
-1.0161 -0.556296 -0.0607097 
-1.03788 -0.549531 -0.0615471 
-1.06083 -0.561681 -0.0629078 
-1.09702 -0.561372 -0.0645826 
-1.10591 -0.565921 -0.0651059 
-1.12077 -0.554161 -0.0655246 
-1.13509 -0.561242 -0.066362 
-1.16625 -0.556521 -0.0677227 
-1.18968 -0.567703 -0.0690835 
-0.848694 -0.578289 0.237098 
-0.835811 -0.569511 0.233499 
-0.838708 -0.554707 0.232149 
-0.850085 -0.562233 0.235299 
-0.867694 -0.556622 0.237998 
-0.879176 -0.563987 0.241148 
-0.90176 -0.561078 0.245197 
-0.910033 -0.566225 0.247446 
-0.921284 -0.555316 0.248346 
-0.936305 -0.56437 0.252395 
-0.940632 -0.549441 0.251495 
-0.935584 -0.546492 0.250146 
-0.958389 -0.54201 0.254195 
-0.973656 -0.550644 0.258244 
-0.996539 -0.545589 0.262293 
-1.01876 -0.557755 0.268142 
-1.03506 -0.548036 0.270391 
-1.04367 -0.552595 0.272641 
-1.06516 -0.545072 0.27624 
-1.08425 -0.554837 0.281189 
-1.11625 -0.551927 0.287487 
-1.13022 -0.558837 0.291087 
-1.15023 -0.548877 0.294236 
-1.16782 -0.557269 0.298735 
-0.84114 -0.573142 -0.0177666 
-0.844445 -0.575394 -0.0178364 
-0.838955 -0.554871 -0.0175571 
-0.838955 -0.554871 -0.0175571 
-0.870185 -0.55822 -0.0180458 
-0.885333 -0.567937 -0.0183599 
-0.913454 -0.568354 -0.0187788 
-0.911756 -0.567297 -0.0187439 
-0.926535 -0.558481 -0.0188835 
-0.92311 -0.556416 -0.0188137 
-0.935874 -0.546661 -0.0189184 
-0.953141 -0.556747 -0.0192675 
-0.966043 -0.546338 -0.0193722 
-0.983449 -0.556182 -0.0197212 
-1.00856 -0.552173 -0.0200703 
-1.03663 -0.567538 -0.0206287 
-1.05152 -0.556752 -0.0207684 
-1.05859 -0.560495 -0.020908 
-1.08589 -0.55568 -0.0212919 
-1.09479 -0.560235 -0.0214665 
-1.13289 -0.560154 -0.0220598 
-1.14364 -0.565472 -0.0222693 
-1.16045 -0.553756 -0.0224438 
-1.17669 -0.561506 -0.0227579 
-0.842936 -0.574365 0.273313 
-0.839743 -0.57219 0.272278 
-0.852386 -0.563754 0.273831 
-0.836273 -0.553097 0.268654 
-0.8618 -0.552841 0.274348 
-0.874809 -0.561186 0.278489 
-0.900506 -0.560297 0.284183 
-0.92675 -0.576627 0.292466 
-0.926536 -0.558481 0.289877 
-0.926536 -0.558481 0.289877 
-0.934148 -0.545654 0.289877 
-0.945825 -0.552474 0.293501 
-0.970262 -0.548725 0.298677 
-0.973626 -0.550627 0.299712 
-0.989597 -0.541789 0.302301 
-1.01163 -0.553849 0.30903 
-1.03292 -0.546902 0.313171 
-1.06024 -0.561366 0.321453 
-1.06797 -0.546508 0.321453 
-1.08517 -0.555309 0.32663 
-1.10831 -0.548 0.331288 
-1.12909 -0.558275 0.3375 
-1.15769 -0.55244 0.343712 
-1.16641 -0.5566 0.3463 
-0.830884 -0.797067 -0.308512 
-0.82949 -0.79573 -0.307995 
-0.82767 -0.772355 -0.303336 
-0.824846 -0.769719 -0.302301 
-0.826797 -0.750483 -0.299195 
-0.826797 -0.750483 -0.299195 
-0.837195 -0.738866 -0.299195 
-0.825607 -0.72864 -0.295054 
-0.832394 -0.714961 -0.294018 
-0.832394 -0.714961 -0.294018 
-0.844147 -0.704066 -0.294536 
-0.84118 -0.701591 -0.293501 
-0.84177 -0.682626 -0.290395 
-0.829766 -0.672891 -0.286254 
-0.838965 -0.661387 -0.286254 
-0.835931 -0.658995 -0.285219 
-0.84505 -0.647259 -0.285219 
-0.832781 -0.637861 -0.281077 
-0.838397 -0.624012 -0.280042 
-0.838397 -0.624012 -0.280042 
-0.846921 -0.612393 -0.280042 
-0.846921 -0.612393 -0.280042 
-0.839578 -0.589408 -0.274866 
-0.830091 -0.582748 -0.27176 
-0.841303 -0.807063 0.0203495 
-0.835531 -0.801526 0.0202099 
-0.849427 -0.792658 0.0202797 
-0.834807 -0.779015 0.0199306 
-0.836584 -0.759367 0.0197212 
-0.830661 -0.753991 0.0195816 
-0.844106 -0.744966 0.0196514 
-0.847105 -0.747612 0.0197212 
-0.841906 -0.723131 0.0193722 
-0.835838 -0.71792 0.0192326 
-0.843079 -0.703175 0.0191627 
-0.843079 -0.703175 0.0191627 
-0.849587 -0.688965 0.0190929 
-0.840268 -0.681408 0.0188835 
-0.838591 -0.661092 0.0186392 
-0.843302 -0.664806 0.0187439 
-0.855677 -0.655398 0.0188137 
-0.849327 -0.650535 0.0186741 
-0.845382 -0.629211 0.0183948 
-0.835757 -0.622047 0.0181854 
-0.842634 -0.609293 0.0181505 
-0.847495 -0.612808 0.0182552 
